ply
format ascii 1.0
element vertex 852
property float x
property float y
property float z
end_header
1.304907674692659 5.924222459782924 13.544184948867159
1.6163582808460695 10.501715894439162 16.741172265778594
1.2187205557396865 -5.8506980959106745 12.540854430916841
3.1783432943318766 26.977708310112337 31.993839584228567
3.1783432943318766 26.977708310112337 31.993839584228567
3.1783432943318766 26.977708310112337 31.993839584228567
1.2240658730190355 2.8916645792631406 12.101372306972975
1.2591181856329703 -10.135000419546316 12.329259169327646
1.2337069362972353 1.800351356992495 12.013228987644727
1.2615875512824375 -1.400328605391599 12.20007524394732
1.2399222798859524 2.69746192103317 11.982502641057472
1.2434378857101267 -0.22955917913113738 12.005179460850329
1.5976908546998934 7.848242355323874 15.413422145399721
1.2494744469940409 1.6278298787791665 12.006954037168144
1.3146622320599062 -5.859593657757532 12.515999958155886
1.2593485481054618 1.8053715830133241 11.988776558205235
1.5081640235286653 6.476033732440796 14.341332982630176
1.3019340889563358 -11.670287210835346 12.324819359700248
1.2977014207551 0.48577663591739717 12.143035422026385
1.3232155099177305 -1.750201616139795 12.360436878736007
3.0292769593168782 33.257862598941905 28.156726634799856
1.65113977172719 7.299877511788143 15.095721342862724
1.372966015536791 -6.155964612639697 12.54947459501523
1.3133461164883735 -1.020984530929487 12.000787566685526
1.3311937539826 -1.413995703984208 12.118394221289222
1.3252910592242428 2.220726864281451 11.950641922293775
1.3808669657004178 -11.472357205340371 12.320971745724911
1.3808669657004178 -11.472357205340371 12.320971745724911
1.3724052395509532 2.1601103155628136 12.115262474380154
1.3945206402384187 -11.060753793213397 12.276374344676945
1.3941199942653542 -10.687062773250375 12.260850299269226
3.751177808719852 40.69719469491812 32.88261258822121
1.3757212085236248 3.5025723226995575 11.98103643279742
1.4155705712745263 3.446892820295358 12.121478373083377
1.4598961217386908 -5.350079840175485 12.478974053347196
1.4104922190550964 -0.9010674562794094 12.043959412995777
1.4416212025623851 -11.206792057910079 12.258993100971882
3.898417152149405 28.754658466444198 32.85126229218206
1.4013496344578409 -11.785802957476175 11.80524939153863
1.421399695502622 -0.9437341223722151 11.975000956916748
1.4753015287723528 -8.118147279296581 12.403436770787716
3.5515110435621566 35.58721644388857 29.728034519536543
1.4674919796274528 -11.011948602792296 12.263847726294298
1.486790559705907 -9.209539003205247 12.379846063606777
1.486790559705907 -9.209539003205247 12.379846063606777
1.46401072390054 0.11752294906874111 12.082759647203973
1.46401072390054 0.11752294906874111 12.082759647203973
1.5045389518735321 -10.162166366368702 12.350099792039822
1.4720043103207843 0.2000853640039684 12.065808761183645
1.5223806870974932 -9.652961154274326 12.388591464021495
1.4832684566019498 -0.4621491818377833 11.999268101653083
1.4832684566019498 -0.4621491818377833 11.999268101653083
3.1812636852306393 19.473171098607544 25.67217605481739
1.5380272875919085 -9.740342723279863 12.344469269995393
1.488937990063055 -0.28147753595293434 11.9213030210518
1.5017373027065148 -0.6077349080254988 11.988240468217414
1.5336784624215758 2.5882473150050664 12.230251100485868
1.5148973157273178 -0.8506146190419811 12.035264711729033
2.4252294372314562 12.960502385705047 19.13150555222522
1.5309275452116724 -0.8884654622491408 12.048968158016535
1.5594839241470038 -8.720463191340087 12.197706363845056
1.561630470354918 -11.147427643473721 12.200563071406796
1.5682114115953596 -10.942840170215154 12.200973673152088
4.002127625443235 37.756870117624274 30.97953649470458
3.9540784983157855 36.6009605514457 30.320862853363195
1.6085911678514115 -9.699459446611812 12.27044366204774
2.0321985087488392 7.564027654067324 15.496787033852577
1.6157456382242932 -9.855596527837989 12.207549517462887
1.6119354033225897 -10.698203436155216 12.15068817576143
1.63482901341249 -7.8683428439108845 12.278703804273926
1.611314946804952 3.3173006788855925 11.991327455083136
1.6218201434572173 4.084927250492013 11.968259998499137
1.6177753051281791 2.2480256239189647 11.934984110251486
1.6414685060726624 3.5686945871737654 12.083606871186259
1.661731319941494 -8.095250800669907 12.224773224585464
1.6201926825258264 -1.3365083482901217 11.91376780646385
1.6718920825266 -10.731256111773622 12.291295032079333
1.6718920825266 -10.731256111773622 12.291295032079333
1.644541803602394 2.687065928724451 12.091437448209764
2.96116759291588 22.779463020356943 21.42324331905934
1.6548600246069807 -0.6090175539342488 11.953241364276222
1.6543926671480849 0.3857742164624026 11.939265446951557
1.6528321254462175 -0.2949098175021687 11.913375797947484
1.669720035445826 0.5996171739887102 12.008365815557216
1.6746637780648097 0.9951199712604724 12.000681084984379
1.72458799059861 -9.144348041097276 12.233494040302334
1.6834822153873608 -2.4013210649548955 11.930252833387625
1.6959933961632423 -3.1921096204529267 12.013870611974829
1.6944075189968348 -1.3502311080594391 11.920078574247865
1.7035788231136184 -0.48224088769623796 11.964776523086542
1.715920069589821 -2.893652627317684 11.880346628113374
1.71352219977561 -2.2441346454907096 11.858748416448975
1.7754737013281827 -8.814620455868553 12.171923481496417
4.416135984531372 25.197860280387776 30.214830380501372
1.7825248111510767 -8.89249963598827 12.136553824497431
2.1228854888514457 6.406111413320407 14.33939240145718
1.7668747165772858 2.03356206728046 11.805228331703551
1.7688502386687484 -0.4623786531037936 11.809102090822252
1.7982204495034386 -3.667503269445672 11.998697764252531
2.8289252395581066 12.901162585215022 18.827535937017284
1.7841254259024535 3.00084978189112 11.860028241466873
4.541687445677942 25.514809179694613 30.108139148757342
3.0251071172536688 13.76660265109673 19.985955214191097
2.8782803562539305 12.900311683401139 18.879496393972556
1.8436181227220572 -10.495747212923595 12.093678648692473
1.895515887155895 -5.70130501987873 12.330138225185166
1.811089226419919 0.5546962687710567 11.780156181788703
1.8745670201345008 -7.984201571090185 12.16305776385144
1.8745670201345008 -7.984201571090185 12.16305776385144
1.8677808651396712 -10.777027736649314 12.116229080413522
1.8184570163428448 -2.480677861652191 11.793002412714468
1.823633288402005 -1.7526292786623263 11.777064250313623
1.8863511878587875 -10.85156804959104 12.097439119530227
1.8755000331692022 -4.030515706472634 11.98480423684337
4.665023570791597 24.730830013249253 29.78681157831026
3.3021182173365187 22.281343319949045 21.03743692994439
3.3021182173365187 22.281343319949045 21.03743692994439
1.9063638248330053 -8.545526291050303 12.070978312051217
1.9144135816939347 -4.809418046718303 12.010602981643899
1.9714811574894435 -6.1787563588486565 12.277300436956676
1.8809950984118784 -2.864630632084315 11.695538515980923
1.931075348710288 -4.110297282442278 11.944533131797177
1.908115628011984 -2.258971546609926 11.721590081309886
1.9817290494826016 -8.01191115996254 12.087296764930105
1.9375815693913685 4.421018795734658 11.808196320348715
1.9706866490538606 -8.495484958311538 11.9872027265292
2.0148904043536624 -7.513810746484795 12.156646268518118
1.9719056859522204 1.2492941058749503 11.887565784833189
1.9802785843930786 0.6991158072712716 11.919032938833759
2.0342149568424546 -11.376137684288974 12.158011179418198
2.0231819820861365 -10.8375939057486 12.023990655388857
2.014546166928164 -5.305692841636914 11.959168097909734
2.0111419323927953 -4.5360149589144685 11.858113359875087
2.0313729797328106 -4.947677270385787 11.851145840832745
5.19249074940332 25.675592917828254 30.262780317342433
2.0642015595587857 -10.822879909939978 11.9944126511608
2.0381539051102266 0.14358999941252507 11.819918809833785
2.0417528170685175 -4.765601281194244 11.821825736188805
2.101039566748858 -7.167427882339591 12.107131401636549
1.3849573062680092 0.59827146549592 7.967487110046439
1.3849573062680092 0.59827146549592 7.967487110046439
2.094261648180706 -11.054001750051667 11.989082878964554
2.094261648180706 -11.054001750051667 11.989082878964554
2.089150003436324 -6.028970480493307 11.957431334813045
2.0741488597698163 0.8052647009028041 11.857174635757493
2.0601439667176744 -1.854211045740696 11.747046464642047
2.1381128332946564 -7.435782867183967 12.155738089321476
2.0924521244989576 -10.193678498482662 11.880683547582272
2.955911617072278 8.747137392198804 16.727190781269805
2.108451513112328 -3.3849274605987616 11.87136816289251
2.1175421759358586 -5.167822969184715 11.810317894904975
2.142729264651103 -5.9375615675602536 11.93171819691785
2.9574937053962844 8.368985614921133 16.44254069545624
2.1405420763914966 -0.3219356594111337 11.892011614136448
2.140384867898481 -1.2758021101674546 11.84418585768492
2.1431849044486913 0.3662183333741889 11.857076214130117
2.1475774627059745 -0.7502473110775767 11.87639135555244
2.1504486524676163 -0.5409562528112764 11.888834969282067
2.1547176552873717 3.5286072176553733 11.869196881747857
2.151699791232238 -0.9867572316301673 11.851483825920575
2.1916913105706435 -7.967144938830786 12.063184570796516
2.9328169797719474 7.976310206481476 16.10671495015025
2.202322211915434 -8.071189546362266 12.067900127673157
2.194531933502997 -10.892564160533833 11.978291840793267
3.536378172084016 11.717992702947337 19.065807485811685
2.2162139704486754 -10.403913144146241 11.91386017085571
2.2142801752030037 -6.705946245929196 11.901087503030219
2.19402851892294 -3.153536857708344 11.776477644871658
2.243768517236937 -8.493015692216222 12.03038836700214
2.2226060488844324 -10.628813174041955 11.860078719853862
2.2226060488844324 -10.628813174041955 11.860078719853862
2.242721582596418 -9.030308114445733 11.962777126992158
2.19632848848327 -4.245383977673335 11.712410797672568
3.068229526473383 8.332191005439583 16.346845588480594
2.2092294703754045 -5.5495884381903515 11.7497078836064
2.2148438889758393 -4.383481213087624 11.773956623116835
2.227250279459224 -5.154669901100592 11.777568241475903
2.249020676618236 -6.890707578550491 11.865037484743086
2.254108820667199 -10.710694385372618 11.793625970096917
3.762515183516346 12.48347580936875 19.525122911943683
3.4265296055351127 9.778171030754654 17.766619223884856
2.2909324124160575 -10.015703637533708 11.877079445750418
5.795721523152465 25.041706071730797 29.930343264963216
5.378556985762 22.586656907595312 27.75458855122259
2.292601896624394 -10.806161544305938 11.800099754732711
2.259553038103609 -3.4269878356230783 11.629228001291361
2.259553038103609 -3.4269878356230783 11.629228001291361
2.2874965406981085 -4.924600421779784 11.724886832574633
2.283999672643142 -2.9056162345132623 11.701748779945707
2.321969589848043 -7.669133356630697 11.823818111147856
2.3588479322465403 -7.957774348651501 11.955002511182379
2.3207083454927946 -5.720538929042028 11.745085387555388
2.3444064156910254 0.7900356862342337 11.753708637786437
2.3619009791172543 -10.81849102614859 11.819812494682324
2.357387199032007 0.24173451970075424 11.784943244943902
2.357612265990972 -0.3621162842704123 11.763322640324754
2.3808225987127294 -10.461530922308325 11.867454010898784
2.372044169173161 0.07948542947487461 11.803276062570228
2.379866543814897 -0.5548041320030055 11.727555056782382
2.3734632337848365 -1.0803722998091003 11.688687991123418
2.3796594759480634 -4.930973590421726 11.683372921005907
2.4771153923062275 -11.29342209561194 12.103679642215086
2.3774728393873032 -6.525086426372852 11.591158748744336
2.366834206707022 -4.580775473625811 11.529123059514944
2.4062239403586583 -1.827220289564683 11.696382816397637
5.958106282772419 25.430440084725237 28.93107386331149
5.958106282772419 25.430440084725237 28.93107386331149
2.4113863743978277 -3.063739711623374 11.690294770758864
2.453417622351339 -8.875756391974528 11.851257372882033
2.4418749056958933 -9.686651728323078 11.77794049826437
2.4122136947192674 -3.7757091765492587 11.625755880867487
5.748917860802223 22.74944429693585 27.676272260222127
2.446264743237283 -10.012999972426643 11.738024863262213
2.4274984059217535 -5.003395244000725 11.647006663314125
2.4245817940877643 -4.13327248393876 11.609584624859973
2.4627121485715273 -10.313419890924347 11.784335731630588
2.428056019016627 -3.252350131014378 11.616525083112707
2.4358638326836504 -5.65683132065382 11.626163687246985
2.43353314096074 -5.935126305095889 11.592216192715753
2.43353314096074 -5.935126305095889 11.592216192715753
2.4877770619790693 -8.969520736631834 11.785200134852612
3.9100406003870187 10.4337958406034 18.505526721743127
2.496429066214853 -10.26400164022713 11.815848582434871
2.485504686625407 -9.223646110172295 11.75309309291939
2.4889221836814817 -9.444127275381796 11.764096316993198
2.467722250781392 -6.43148328662181 11.56893827588933
2.467722250781392 -6.43148328662181 11.56893827588933
6.2050796090086715 25.91254120285629 29.025054485480045
2.4897700519593813 -3.7632476990196833 11.61184998369307
2.522940505346689 -10.41291774834847 11.74292106453786
6.132301274701775 23.66321238086283 28.45894457280252
2.5227883926014205 -10.669503561198404 11.68906697487584
2.537283649790001 -10.290685452293227 11.753428766236244
2.55626703964536 -10.590248173520287 11.78374101895933
2.55020336005054 -9.47576025944493 11.754765688248693
2.5341091751979783 -4.712661500166303 11.630489592317891
2.5199656250793834 -3.9920943394964357 11.565591338339333
2.5255783572543926 -2.9614596410108778 11.591697849400045
2.526830473692616 -7.0205982752094505 11.5924084213957
2.526589288359662 -7.912799999200302 11.568175605600302
2.5536785952746652 -2.429176675693919 11.680171144968964
2.5536785952746652 -2.429176675693919 11.680171144968964
2.5627625541373833 -9.533723010246655 11.717236977055338
2.5644921700585424 -10.189247697928229 11.72118616878425
2.5369924499748824 -7.304004636475585 11.581772341217425
2.572854762150476 -9.245556266919372 11.721277544992649
2.5614272077787508 -5.489526304785823 11.639183597767525
2.563809860150604 -8.755742142273261 11.608033060996425
2.563809860150604 -8.755742142273261 11.608033060996425
2.5970335873768446 -9.387257796552118 11.683387330867655
2.587814453396226 -6.048146702246819 11.619258347066202
2.6004697875615577 -6.4223060594527555 11.631729404776337
6.237571361637589 23.255033552680516 27.85006096231334
2.6251708165840713 -9.534104253339274 11.700928517182392
2.5984956057925563 -7.452481601894671 11.570491235428436
2.634479500552644 -9.666554557099778 11.668821962270519
2.6286826955201925 -9.209762188128298 11.637669599513444
2.6331465966944645 -6.410134624690693 11.550820926708752
2.644863699090472 -8.29612692053382 11.568568766039226
2.639698884047189 -2.1440475939796575 11.532346258920946
2.6854409923545868 0.9139681811853744 11.70345664482113
2.687911324710418 -10.598954259059896 11.702020443762759
4.608910506448938 20.729355101007073 20.04987866636009
2.667701104909151 1.3803119376329973 11.591580742044966
2.6811325382811675 -2.3236408557730424 11.648491956327867
2.6468000373111504 -4.085616352928929 11.497203610059
2.66783840290549 -8.721266421437488 11.578166584325752
4.228825575492625 9.921761448132168 18.281201776867164
6.44090840151374 23.514395659483167 27.758852434030207
6.44090840151374 23.514395659483167 27.758852434030207
2.6730371997457207 -7.101695155180476 11.488526603892332
2.6991318480621698 -2.978808553740241 11.587622733297113
2.6987979084071343 -8.28892565140023 11.58188416821458
2.6965110575229883 -8.90306766208095 11.569313199388988
2.67524208172574 -7.603925183337365 11.463120839699254
2.6985049950584994 0.7311244859072242 11.545326940447866
2.6984586280680847 -3.73868626217215 11.54403356623871
2.702286458951738 -3.2368758109566773 11.55962313905239
2.625225260586835 -10.997621390382443 11.222538477458398
2.625225260586835 -10.997621390382443 11.222538477458398
2.6955138278518667 -7.369065384249229 11.510071534960131
2.6955138278518667 -7.369065384249229 11.510071534960131
2.6805504875871544 -7.432863761480132 11.442080747635808
4.278165280533043 9.773516835499573 18.12868141807139
2.723211176824661 -5.736574267398524 11.459977494677073
2.750730245982094 -1.9303119747989714 11.565652514342531
2.7187938942650303 -5.822004249032766 11.417103255534462
2.7525901136671993 -5.487198162143152 11.541200017649453
2.784809086045764 -10.542169599151794 11.67618648812921
2.75097491755072 -5.976005221460464 11.463929921994197
2.7763217979106187 0.10939218528782917 11.568613236306897
2.7763217979106187 0.10939218528782917 11.568613236306897
2.726640246803237 -6.619937620267415 11.353873348137977
2.7851649544284522 -8.246522593193198 11.583622914204307
6.5194885603160895 21.878248752104714 27.072857074161682
2.794691181749755 0.8465277931389085 11.593036032764902
2.791151770336206 -4.4366505964121306 11.531659570057917
2.7996470855092728 -8.92313982898044 11.55681715355644
2.8215959887977813 -0.9439136339261921 11.599585300028602
2.812979612431752 -8.358373099724188 11.559963800634153
2.847199032959294 -10.54369431715276 11.682120190212455
2.847199032959294 -10.54369431715276 11.682120190212455
2.6424821671796326 -6.29024620996583 10.809477229811016
2.7987083267508015 -5.891438000309827 11.441379176304006
2.8168778331891677 -8.153828270111587 11.513905589293445
2.8168778331891677 -8.153828270111587 11.513905589293445
2.7928431132912785 -7.1500582284778345 11.412025724419257
2.805040349601946 -6.594749029654431 11.413507549299572
2.830555688629314 -8.214702122424024 11.505668258608292
4.509195590825287 9.977689166103891 18.3098163038923
4.505460054162388 9.968571387091163 18.28990745551392
2.819707314575583 -4.8127150830518675 11.432481971777605
2.8471958386928895 -9.540432777531832 11.497137101983332
2.8464365025336122 -8.486465336123777 11.486985439614058
2.878814214366438 0.6174468922058943 11.562708221162854
2.872480565106282 -8.944537469627372 11.530159819246647
5.047763881127959 11.800204148113941 20.11228173420095
7.783341728312379 38.236496206037806 30.980703700316667
2.9324400777697197 -8.757506478286915 11.643893430796208
2.9349819875343157 -9.561460680705968 11.621500746377842
3.021247562916571 -10.824769168661305 11.941297423730903
2.959294002927651 -9.982907266051606 11.621780334083168
2.91800931657011 -8.321628547306611 11.451370085269124
2.8968353517694196 -5.146797353627719 11.361776321154853
7.049232289782706 21.990335226168572 27.583396519375825
2.8468393730020303 -10.746111203632037 11.137740754735404
7.912832866640784 37.7089116111166 30.822123648364975
2.895222748208844 -6.50990807593323 11.274579832818466
2.9975731991982575 -3.408984722725792 11.593343431518884
2.886281167743585 -10.662073445697272 11.116876844325514
2.99348060373675 -9.66730314641845 11.522373898763684
2.99077207530245 -9.388962038567133 11.49754401334702
2.983437154117719 -8.367165960029578 11.434043470440665
3.0136781613273333 -0.41579397914833277 11.539260707683283
3.0176723569864157 -1.718025775758076 11.53339698001807
3.0116702606404373 -4.767535917456999 11.490714312165816
2.9798411745680817 -7.441376148307115 11.333143207243253
3.041130810316724 -2.881123795713282 11.557124106299502
3.0390427010807546 -4.02691129814668 11.538385946091925
7.982772456526316 36.79723178712056 30.17860720157901
3.0356587231318293 -4.424711197585759 11.472883345289121
3.0292785115240197 -6.8012504552858095 11.447880264950442
3.048764411455283 -1.7507002923183892 11.494369970486536
3.05244384915127 -9.813603294220451 11.505420918461693
3.031338456671497 -9.211275682470466 11.424510048562022
3.022341195843658 -6.052950547104608 11.388882203635344
6.123341208212935 16.05096499505889 23.013445876005047
3.039118293984998 -5.423102298751327 11.39125304726644
3.042686468832165 -3.906362850732308 11.402340732100036
3.048095289969614 -7.366136766452691 11.421831010005997
3.1033653199397997 -9.989977564864885 11.61012278678042
3.0883013935568355 -1.6583675488215794 11.541375211482404
3.051498684056899 -5.050656003588703 11.366171918276546
3.0741029461119567 -3.4475628190761496 11.43764081447426
3.056511798943782 -5.158158615946128 11.36699149523877
3.0739908466833676 -3.77804738166231 11.430282653886598
3.067102123875849 -4.884694782129536 11.378845261087736
3.0735063241366456 -7.584702872465548 11.372076193854333
3.0335349366748803 -10.823233161031013 11.196490630861176
3.079675311393778 -6.474519249326685 11.36486612507736
3.1232322926407377 3.34697953951697 11.521636893455588
3.066645346750471 -6.43092814240935 11.297131079801465
3.1356997081246893 -8.723237616205264 11.513353876973232
3.19777340380608 -10.508707894280912 11.715624935857504
3.092598906996777 -1.8123208557649237 11.309211537665712
3.0755630657334927 -5.051953718041251 11.22755922948251
6.493874230350186 16.567114082802625 23.694402648115478
3.083686351827699 -4.780820603423276 11.247910572626331
6.520926448592951 16.900381402963223 23.770111309815693
3.0739065118667903 -5.55209615687388 11.203403036447414
3.1505977614353293 -9.870293484428727 11.477370293549853
3.1529351309002336 -8.376035277031944 11.450878738655483
3.1436497592049317 -6.780453927916174 11.358215843572125
3.1557168077415447 -3.7742117994989295 11.400623897419445
3.162274980726947 -9.465411941822985 11.420092424971955
3.170873724882405 -9.69581724959318 11.449334196589602
3.148961487771053 -7.063899879976019 11.348289142370577
3.163074085656857 -7.480096655021142 11.369615722710515
3.101283751330116 -5.449887502903773 11.1075464829132
3.1923914587914837 -8.74330839580383 11.41881107382298
3.1761913656140015 -6.384248968048806 11.35406600549487
6.512859608566815 15.44944291389789 23.257491399238376
6.695182643412738 16.774387057130646 23.884898677700978
3.2022043843397068 -6.512573130659911 11.356375163847028
3.1526742491645177 -5.808006110724572 11.178984821261647
6.664247907235942 16.078107139187207 23.511741335464905
3.2132762793259033 -6.64808500992268 11.33818095781034
3.2132762793259033 -6.64808500992268 11.33818095781034
3.219505189626647 -5.934089542598602 11.350900397986358
3.248618753177926 -10.20096534489953 11.444605220170233
3.177319228270346 -2.5914286343594135 11.176897833755309
6.038835407888968 12.741459469649508 21.229487202797177
3.25572784534427 -8.35980416508878 11.415663480083815
7.250439614765369 20.212733242036812 25.415938935249365
7.0296486159245655 16.713338206942836 24.61799799659349
3.197992067417635 -3.059522277513989 11.193880300704846
3.2073497419135446 -3.385710337267571 11.183210808505446
6.464967169021961 14.479619111938998 22.508525722658167
3.189118071714986 -2.9453558983812687 11.100902465187332
3.2108870486025953 -5.415669307972589 11.17420285427694
3.2520758632066853 5.47522999175925 11.307718893389046
3.286273388250646 -8.210842554976471 11.414378407883731
6.701155187758726 15.680758232486292 23.270653235125938
3.213228198669443 -4.201143266369525 11.147006066214178
3.255378148595415 -6.3393275266532685 11.29050051942116
3.2965582487374525 -9.755717643223267 11.412470404323885
3.188122589437707 -0.2667751443126303 11.026927084218375
3.205488459816019 -1.4084505676664232 11.068409367652388
3.205488459816019 -1.4084505676664232 11.068409367652388
3.2723332780420784 -6.238816317768283 11.294730425890174
3.301938998712796 -9.889281507424213 11.379152889270506
3.294406788524479 -7.965462655261895 11.350117977258884
3.2325690784586287 -3.780134234390797 11.10821614158903
3.2182245217579575 0.9233782051365117 11.046696921193352
6.898700190931594 15.865237017999137 23.671525945606728
6.898700190931594 15.865237017999137 23.671525945606728
3.2553826490121764 -4.389327238597031 11.164345256837965
3.284594640549968 -5.915478664380654 11.237582731603053
3.313694983980018 -5.680936322129143 11.317741715566653
3.2447358964386583 -0.8541782324077181 11.062191235329623
3.351818336107633 -10.205660886753552 11.422863126168911
3.252617187582791 0.8272247916744268 11.082846224432604
3.3546272529607477 -8.346733144692099 11.381786661902787
9.54203569798501 40.18580057368978 32.302790820439284
6.949533688295251 15.521896594041753 23.48393671961909
3.35844737253882 -6.881537630933482 11.341612450331544
3.3006511724427825 -4.37180101461732 11.124339563644957
3.2960174728563403 -4.282098287309646 11.10831678402818
3.3100401338110275 -4.785506382787674 11.151851910993242
3.3961991191530005 -10.190381165991775 11.436752634549228
3.368031769666593 -9.594603343931812 11.331174389168982
3.3396660647546152 5.2481013837793755 11.236646833179805
3.3069300726011046 -4.505218645395933 11.12100106869264
7.410519878211765 19.59686180126653 24.8649443748037
3.3401583971201765 -5.474345835905405 11.195177461510498
3.325295933960016 -4.930717437920109 11.136638430593656
7.457041438268238 19.71743637565154 24.95417724248892
7.039006783668141 15.20302997300203 23.518652856361797
3.3165151567083817 -2.4022209024080055 11.082319085203443
3.411095698198031 -7.26800091805844 11.361422601568274
6.219190263407241 12.196229194353439 20.68918949383363
9.619426542440719 39.71396062167061 31.96476560971159
9.573441179609777 39.50499194655692 31.788532555588528
3.3968702276552643 -5.412069054343061 11.27440936988909
7.262452500966713 21.916746976509916 23.960143842776493
6.961852029414865 14.4410839854184 22.95566606314939
6.961852029414865 14.4410839854184 22.95566606314939
6.119911982317872 11.603291625676052 20.14188315807143
7.017248788616375 15.084476029691745 23.08214946558799
3.4151233234648015 -7.581012929626223 11.200101030168723
3.392998060920344 -4.449347858466676 11.115444339599911
3.458735236947072 -9.68206413638283 11.319186461773628
7.139031888696902 17.750131262508795 23.343640235174124
6.9623860900328625 14.55349527906234 22.737744734085098
3.44927821187273 -4.861544060392063 11.213763272056788
3.4583882899388905 -5.017400805515185 11.229495386493781
3.495761889019168 -7.279307142533421 11.326341914704726
3.511845681867281 -7.2419672982100485 11.37224035681486
3.511845681867281 -7.2419672982100485 11.37224035681486
3.4584516580006506 -4.538037811328667 11.178585543676391
3.511555829813658 -10.052347098922912 11.338116356677553
7.59403515156444 21.97311545583586 24.43536340798172
3.4457690178345195 -3.8858642737573175 11.07628756167767
9.750019036954786 38.898547136189215 31.34369330269265
7.571578092152018 19.266631467166878 24.333801395754666
3.523188301368126 -7.0999601931575045 11.3223850489176
3.523188301368126 -7.0999601931575045 11.3223850489176
3.4762061469056147 -3.6345712044198892 11.169714410428698
9.766742195128048 38.941130830414096 31.367822947611984
3.50007780576845 -1.6813994463580035 11.217757932676738
3.5346295048834366 -6.744093670099068 11.325397222921517
3.5265819076548963 -2.2488727040577956 11.219066451829999
3.524062977854414 -2.1181101756812253 11.207612607147736
3.581026634154989 -6.8752035908492894 11.380867425672461
6.329253416602039 11.623901044222043 20.09776892690724
3.5426668921609923 0.060642563990355544 11.244578359763791
3.53476559378641 -4.608377792076962 11.217407479102107
3.5262022504811674 -4.163056451867468 11.168787481961852
3.5798192602260293 -6.122483213041069 11.312155068519239
3.5449135050527927 -1.9414779265873872 11.199957211658075
7.874936683122018 21.793211902967457 24.865270210034183
3.558833130942458 -1.408445240802483 11.220230908243957
3.5550060710082394 -1.8188049578108123 11.208443584240019
3.5376739697983983 -4.287232366408088 11.149978171428016
3.5343076544006955 -3.628271373143944 11.136367261581274
3.553862934650989 -4.730965675835822 11.172998576916992
3.593230752310632 -6.558393620248209 11.296011516296945
3.542083939730681 -3.0907743228160762 11.128447885066263
3.581078380483046 -4.066560931207655 11.216167178531059
7.1972398395359765 14.123876470152535 22.456205369233427
3.6159359509224456 -5.32140733992448 11.280891214336949
3.6366181216727695 -9.631706386845597 11.254807798087741
3.5940195219968394 -1.168954742545585 11.108808883316946
3.639435345766355 -9.234464536578418 11.230809107307675
3.626074392610906 -8.974275879963926 11.174391019231026
3.627201426476841 -4.156614204374997 11.172114441081408
3.671149673358921 -5.787073146455132 11.219457238236457
3.694775615114057 -5.545217992673384 11.289548615274933
3.6845644927972607 2.2494838871558755 11.244061037707368
3.6797857082482106 -6.198328333172175 11.20268722099456
3.6626802474117377 -3.678404031989303 11.150456118816944
3.597227114825615 -10.3330456443996 10.951041559504826
3.6790428732217566 1.3240197190718157 11.193353845802509
3.6783800254597945 -3.818766043337844 11.191101111128152
7.279332745046863 13.709346354476494 22.107915603776377
3.729840848048852 -9.971867151946507 11.303100440054003
7.361316666950091 24.223144240380773 22.29775054515607
3.6561636102090276 -1.4838007454279627 11.020845544732895
3.6903581457850896 -0.13875420342173336 11.095182941582681
3.675309512033182 -0.38290587730413145 11.046134649240392
3.7312408995619424 -9.428212396271093 11.193603906964935
3.6790166657499426 -0.6681986728171923 11.010397211220914
3.682926487843238 -2.806839465643995 11.00817605895832
3.7875070982277386 -4.721065610924081 11.270083362508474
3.760836417091777 -9.685335697322493 11.189731735044273
3.7619923929952246 -9.177027081967251 11.164563146901907
3.7619923929952246 -9.177027081967251 11.164563146901907
3.775647735600283 -4.127222995781567 11.161392549662532
8.401837510039948 17.835138202587242 24.6857747439401
3.8675861987945392 5.137421219957778 11.356227870327592
3.6922608569099724 -10.27046130466092 10.792419124895343
3.8431569486976165 -9.620384180803176 11.198301123893097
3.83804642115947 -9.827131341397374 11.169333300344732
3.8351343896440735 -4.745320561866925 11.12561935058816
3.7721981069907784 -2.1697004413979726 10.940576363318584
3.8028217571321594 0.3404808870117805 11.000385451155864
3.7954984196236228 -1.3212463785814499 10.976596484922558
3.860248475198946 -9.31833932358152 11.162796213317993
3.816039955188244 0.4098333177101635 11.024936112014228
3.881601242071059 -4.372489933148737 11.214435957080816
3.810026629769245 -0.887270186088554 11.00271767082868
3.8186570945495153 -2.736544047237446 11.010932863361148
3.8186570945495153 -2.736544047237446 11.010932863361148
3.8450080296537275 -2.6730677836735297 11.077641588999853
3.810388465080666 -1.8971836000833135 10.977959643663615
3.821694453505267 -1.382196925456357 10.96365379865241
3.886863434753893 -9.649467274785742 11.14740334619151
3.901222003955851 -9.107320203333606 11.158042277306162
3.8345089625802187 -1.1616338385687008 10.943268902850503
3.914576885704922 -3.8489373760046655 11.165642650823981
3.923089594598956 -4.603384154231308 11.173972346072205
3.897395273354436 -2.1868728423315056 11.090300888852578
3.873305365008802 -0.6618096360170116 11.012340049458453
3.7741869822506584 -10.019425534223117 10.72629029834334
7.679113626441625 13.511054153397476 21.798105296018853
7.679113626441625 13.511054153397476 21.798105296018853
3.925722283327828 -9.689962541115136 11.131231706738943
3.8885788723040275 0.22702601784666052 11.023815043441006
3.8832105997055444 -0.9824392997962592 10.96162755732679
3.9621335557829966 -9.249043511888159 11.181882643334445
3.940884871300816 -2.982166050644707 11.11567631580365
3.924400390977888 -9.549132902633165 11.041369441015572
3.9115964000779124 -0.5255569772280091 10.992709728999863
3.957563196451814 -4.323850219383312 11.118503038593417
3.8496835482202894 -10.335437507017174 10.791023546739165
3.8496835482202894 -10.335437507017174 10.791023546739165
3.919018597498408 0.15533407693915136 10.981704378244903
3.91449364662756 -2.0201939724081677 10.959684077501727
3.9592152265974647 -2.8828477837101767 11.081686377053519
3.9180584612165403 0.250711100510625 10.963429115591435
3.904027789718196 -1.3605174784470344 10.894670685976658
3.949362515619667 0.8166950407067337 11.019691453260824
3.9189702937280506 -1.6257092074995585 10.922313370707156
3.978635760754319 -9.453917711904932 11.071712034978166
3.9290025124752916 -1.8051903661623585 10.921282977878224
3.9296688653759757 -1.0034242082968121 10.919367938783838
4.049397388616143 -6.625946945950861 11.239539425041155
4.049397388616143 -6.625946945950861 11.239539425041155
3.9331864958723326 -0.8546595656429429 10.911009557592989
4.043189379506075 -8.078833322772612 11.155881290020483
4.038060823653602 2.9070375546287277 11.09380854951371
4.031459171482637 3.3198353436626906 11.062600435218942
4.046529525822104 -3.1080509937382486 11.096159348652936
4.091899077501205 -3.609253169783618 11.16449908813745
4.084188220183058 4.450958779791578 11.139164532933066
4.053631521874085 -8.919359041632895 11.042060159978774
4.009631301527706 -0.8639720836564627 10.874190208038419
4.1303141305379905 -9.78418659001348 11.178447414325197
4.032867018140363 -1.5433151348062892 10.892491825749282
4.045284595776051 -1.0678830160538801 10.91771995896875
4.016339555431375 0.1853812461276019 10.784121906481618
4.155253848771563 5.746803783952261 11.135463867834673
4.092172616286955 -1.2282875444357761 10.964565505740541
4.1123417350461 -8.983381337679159 10.996814091634986
4.049734665616823 -0.3107265632881521 10.820259993852236
4.049734665616823 -0.3107265632881521 10.820259993852236
4.05901998516028 -0.5037694982462291 10.839931776524352
4.153592257352828 -9.165480939420462 11.053203625810548
4.076192378632799 -9.941728929601618 10.785604085663856
4.112144719441288 -1.1529218797360863 10.879866785851265
4.132048440105768 -1.2102757241289968 10.908404362395698
4.138932773352478 -0.9667178175911025 10.903131010284795
4.138932773352478 -0.9667178175911025 10.903131010284795
4.206508164091465 -9.341136020052039 10.998868045531408
4.160236512686407 0.2949677905235136 10.852130668527282
4.281928949554604 -6.659448786583485 11.112008299449588
4.281928949554604 -6.659448786583485 11.112008299449588
4.178691364552139 -0.6290364113062227 10.83902679604131
9.118982791257805 15.364839523501596 23.56317771609903
4.181786645451499 0.8275965004050877 10.780222483369895
4.244670013095477 -8.827231991974944 10.93792729802294
4.204357133068974 -0.5376955489429506 10.831571362139186
4.277226744423176 -8.740931977730801 10.978086405767073
4.277226744423176 -8.740931977730801 10.978086405767073
4.371051775927467 -8.583580598129446 11.165764264386706
4.2922965147589105 -9.442578303275425 10.942481837604594
4.2830155525230635 -0.6714702076616891 10.896744858235374
4.340883639707623 -2.0608826270704954 11.037146709155046
4.388007892639732 -5.7618904199526115 11.09729807663029
4.281500205127195 -0.017004376304990736 10.798687800757683
4.401459744700213 -7.614660239673196 11.072936979755573
4.326553386165507 -8.719820090424244 10.855334403673583
4.428817295038836 -3.528447335836024 11.109137390031073
4.309329649870528 0.2742051035391749 10.782791819590273
4.287663246849973 -0.1830372559569321 10.723868799680787
4.399677918953658 -9.246275988295464 10.9596672307146
4.301196401552939 0.7789900172919503 10.711215940439248
4.312470008784445 0.02809697092974427 10.728712522249875
4.4455653940094475 -5.624729662187108 11.045444083312326
4.401844954643323 -8.541803972397776 10.907675312958782
4.401844954643323 -8.541803972397776 10.907675312958782
4.4087980837271346 3.8947032241630857 10.921105101085997
4.4251356947071505 -1.5699930306489003 10.956026953716592
4.404765568330841 -8.6489235372509 10.861822398296715
4.45901980933663 -1.4880246469744327 10.985536021946475
4.349888392646798 0.48062745866395123 10.688617918269983
4.349888392646798 0.48062745866395123 10.688617918269983
4.502555567695776 3.6904374193093092 11.056420730434569
4.377787047901709 0.3583709451332782 10.741843474201387
4.374536314802794 0.5896680622381809 10.712963829798158
4.414127213822928 1.419467461790585 10.80020766525989
4.362544589800941 0.925107198976883 10.666925712725975
4.4440455816211175 -8.732410209529679 10.862971643269415
4.3603885866056915 1.4175061873712316 10.620460995232854
4.524724956797456 -9.473202911250507 11.017646255338281
4.528879789067452 -4.349208044375664 10.993719735736576
4.512456787258232 -9.127248705768077 10.95264512748718
4.528670431870355 -4.519925989212579 10.971578784037456
4.453988051128811 0.6315500682961482 10.790219448966296
4.49719016021212 -9.112984968484412 10.866232301702944
4.558363567317418 -4.853266415380148 11.012718432619577
4.526239369614284 -8.795923082872827 10.929735136926384
4.515137364470932 -8.934611728644672 10.891730602513615
4.490550886563831 3.7384561059567982 10.830479607697184
4.441255906571063 0.8721323704513615 10.690744030615079
4.4373447097716054 0.5527682949103824 10.666272714025322
4.496788276659392 -8.55189792617604 10.77100749998115
4.519845126264561 3.5506341632784624 10.825693538449167
4.473636491831428 0.6828289183646723 10.712639665556344
7.167965511577696 16.802017849967648 17.106961692585926
4.4964259712967 0.6160659180101384 10.712434630764683
4.53783439778066 2.7835179076829415 10.759055325498348
4.537169492927965 0.5470083392742446 10.740119710569672
4.653375034398449 -4.923272821885904 10.975852586165338
9.569620679851344 15.078404782304512 22.55056516585914
4.649210936200415 -0.5367663411865129 10.947266892351003
4.6205498965003375 -9.235023524925523 10.87447621268471
4.663471225573527 -9.395018847495953 10.951180862264227
4.6094837519973035 3.661502832862519 10.813772613417074
4.695201408544416 3.7812226870914327 10.89771009270575
4.680276508097389 -0.27371725901518495 10.856440125275125
4.681157565608396 -7.627335673006249 10.85301981186397
4.666407387338792 -8.464877348185846 10.81032700359442
4.717158158683954 -1.308370506335105 10.924286019691937
4.667598414714013 -8.130922553391393 10.805412439053196
4.6812125785431045 -9.271169550810912 10.826339244987151
4.714237937151339 -7.8781317464015945 10.902006047428427
4.659009068346754 -8.360135992612943 10.773346676261513
7.372469650196026 16.604579038066845 17.003612611975402
4.60830766334012 1.2452243943813408 10.599511324252564
4.65211923732118 1.4969095542313167 10.690682425654526
4.65211923732118 1.4969095542313167 10.690682425654526
4.681412337140326 -8.522897252055495 10.744707071832822
4.681412337140326 -8.522897252055495 10.744707071832822
4.756960537708835 -4.498789795966062 10.912581972088795
4.756960537708835 -4.498789795966062 10.912581972088795
4.649040936884911 2.43158617178339 10.657657042034167
4.702214655607605 -7.823372485439091 10.767491934582914
4.726211381036817 -7.537289835917288 10.804832243921812
4.748973265038749 -7.018905520188548 10.834747151847255
7.375934074201174 16.390980769965413 16.821854192515058
4.683285371517134 2.5947934217542534 10.668762724747767
4.727529376944845 -8.581156893270865 10.761372989322863
4.808567171917952 5.673065079208522 10.922483836025792
4.664010918397793 1.9099133361628378 10.591508540856323
4.790714035087334 -7.286155588307267 10.870581472248151
4.7333342438034505 -8.263231914932952 10.737714488736753
4.678554244067258 2.1982374419035606 10.611610747109324
4.801578386618435 0.13255407260423058 10.884347362093648
4.755261877948049 -7.962629771545089 10.770273250639992
7.324430108891325 15.990748024838974 16.560773227258704
7.185273059252441 15.46301972067141 16.232654195934597
4.762057543319128 -8.075152581114562 10.729621076533652
4.814051165081407 0.24543870407538143 10.835037563052763
4.728202076599315 1.8290686720806493 10.626105606337397
4.878981593097266 5.325164847784896 10.946081816236463
4.706017491406944 1.7166150459996556 10.532184331242837
4.895626271606938 -2.7696607984786974 10.952554225718712
4.796328712600654 -7.98504370293379 10.724533769928124
7.4366107434406326 16.177975568445397 16.619250328138726
4.7861499217994865 2.3931771641195345 10.693422438136757
4.87086979611565 -2.671694709208222 10.875784845404963
4.8561803816436475 -6.172982605173804 10.840387897910354
4.89789946077168 6.50461378019232 10.93126044231893
4.863668520037765 -6.049105399898808 10.855204125115765
4.9434422941727165 6.301147706679719 11.030497215859867
4.889026783649652 -0.32728736300537936 10.89114103655109
4.8210995575476705 -7.842501240864551 10.729880423710217
4.909113418199196 -1.228427828995816 10.92481766717426
4.819892416731551 -9.036744236236586 10.705930179092219
4.858360415533341 -7.722270855744169 10.782315103113094
4.882826805728246 3.8327122875289787 10.83540501711355
7.417794324906597 15.82401265916443 16.449624202454096
4.896130588699395 -7.247975152784205 10.842094474912045
4.896130588699395 -7.247975152784205 10.842094474912045
4.77790459394047 1.7996164096815292 10.577740923978665
4.866545464070353 -6.541418266998944 10.770256594458953
4.866545464070353 -6.541418266998944 10.770256594458953
4.889871948997463 3.7540998053167307 10.815606318460105
4.8730257765995235 -8.342770472441773 10.771917532313035
4.8730257765995235 -8.342770472441773 10.771917532313035
4.903268459206041 -5.294947422711648 10.825459022571067
4.849251583198624 -8.501887074237175 10.7045883644358
4.919036789219243 -7.529591907836753 10.849986479597975
4.9893311886576 6.408886397558977 10.997404981233077
12.220358259429428 32.46297314184586 26.918858001181263
12.220358259429428 32.46297314184586 26.918858001181263
4.9344653101192355 -2.7245651857394533 10.850923055612903
4.93337184160926 -5.396999303476165 10.847870741449128
4.876364667856534 3.335111248273736 10.716978505749331
4.916344042951035 -7.777959857814785 10.797602504006948
4.916344042951035 -7.777959857814785 10.797602504006948
4.914506922724359 -5.012630662075219 10.792586471027764
4.911837923660092 3.0954305577147228 10.781473605437272
7.403116694643865 15.584291298117797 16.239042948984512
4.8757878322267 2.4962300349443125 10.692173723136014
4.938597394797041 -7.347148475513455 10.828824688626812
4.903714970473454 2.3178507653433065 10.749142893480112
4.930466579722421 -7.073759715677597 10.77344922844174
4.887838130126438 -8.927854184325176 10.674979106307974
7.59641355061357 15.929994153042344 16.5336585954861
7.59641355061357 15.929994153042344 16.5336585954861
4.931018360665641 3.301225589371508 10.727906923525921
7.818549974822513 16.554067668990356 17.00606870685595
4.934915587132519 -7.919532842671789 10.724181077806422
4.958898039794967 -5.7569647778628275 10.755724160016777
4.9813036040246335 0.8716649460410925 10.803989817137527
7.349866709274829 15.080212837010375 15.926102630818072
7.657153236711757 16.0488238368517 16.568205130633995
4.928640225823073 -8.337694687684163 10.664511287465368
4.958770718914567 -7.758780823570865 10.728606581093795
4.9370514847193645 1.838646635646549 10.637015321471134
5.0360527531504085 -3.4776165647317687 10.849179783302597
5.0360527531504085 -3.4776165647317687 10.849179783302597
7.501291497998743 15.378760813666199 16.14435873089574
5.000679199554937 3.6747019996059938 10.761312668377066
4.35218899076847 -1.0613768237969077 9.362537420099587
4.990148708813283 2.7483072388936183 10.722486985851859
5.068800865362642 -2.585529396741483 10.882041514274128
5.029026584425803 1.4345557857940254 10.787890273222871
7.751026804319316 16.0270675024943 16.599757056611224
5.054275636055487 5.763460627035669 10.824595570446014
5.054275636055487 5.763460627035669 10.824595570446014
4.993355071282042 -7.153323925328372 10.690258153165171
4.971471087117532 -7.208777547350575 10.631740421391331
4.995030521380887 -8.734961015289102 10.679700271483055
4.940353150759858 -8.0319703850278 10.553311428532798
5.060734865638644 -5.85537657097273 10.789924746529904
5.053303115806522 1.19088034978933 10.767709638640783
5.01767026621755 2.0493566890541333 10.686202802950932
7.8975863049614565 16.34243551433534 16.814686496637677
5.020454054793966 -9.0085562629489 10.660749903723111
5.072826468333408 -5.34537626803749 10.755910484010624
5.092767346445394 -5.046660850064691 10.772402831969918
5.086894477153184 -5.139287205911413 10.75333527145543
5.090505357164299 0.760069067621122 10.755987756177111
5.111774316816506 -4.750274545563361 10.796338586723984
5.024712886145171 -8.415480895146331 10.60564610980147
5.051396853564449 -8.734862577694061 10.656904395279147
5.08055144876906 -9.080011468311008 10.70693915678396
5.08055144876906 -9.080011468311008 10.70693915678396
5.096695044055623 1.5749586063136498 10.731947632631448
7.577213238618165 14.990365810438622 15.926098007504699
5.057493679424195 -8.503224860425021 10.624398207941402
5.057493679424195 -8.503224860425021 10.624398207941402
7.860176852791225 15.870307946745832 16.456516516790227
5.079791439060758 2.011046897853363 10.634045234529202
5.1644571975923235 2.3116248682121174 10.792343302451972
5.161182658965466 -3.466506956529132 10.784471793983824
5.113758821038645 -8.811702742854026 10.682685588567919
5.156488757241057 -3.9316697266332525 10.76970592723669
5.1576278472630195 2.1792674293893675 10.758126435600769
5.1576278472630195 2.1792674293893675 10.758126435600769
5.176293048207989 -3.239598549945694 10.791516155733015
5.134430133235761 1.1055243092040727 10.702172486086877
5.110627893854868 -8.64058121069526 10.63044837874458
5.123681001682984 -8.564979020905785 10.65393754339948
5.086755593845006 -8.064386797378875 10.563539184564974
8.183956379244446 16.39679536453102 16.965592513100013
7.978382028074633 15.836577532461963 16.487010750031075
5.189431717168772 2.3058814078590895 10.717255580372507
5.180434096488244 1.9524622595108347 10.690567014074992
5.180434096488244 1.9524622595108347 10.690567014074992
5.169512901704972 1.3545099059204067 10.667412283397667
5.233743368328119 3.354626719225427 10.800008304859501
5.102207266544272 -8.320322228391465 10.520136964132147
5.321308197822595 5.938355524512572 10.957162509729352
5.321308197822595 5.938355524512572 10.957162509729352
5.260599526927907 -2.641551143902398 10.777628547724104
5.247010187926276 -2.112265211740406 10.722134849163533
5.169999545383199 -8.57051723072243 10.552266679499631
5.233307880094449 1.6021346979197708 10.674435040787445
5.1821111253074985 -8.330472214896307 10.569297848848874
7.838275645977851 15.075705402703678 15.981264396751635
5.282128967285433 -0.844332282557023 10.768412532436193
5.241855043396141 1.8782747578356644 10.6775957940029
5.23565759183793 -6.9909628847919905 10.663546486051304
5.281105096614745 -1.7759775387971262 10.754273540344679
5.197022151551243 -8.458782982176647 10.576278241721116
5.2977264660629455 -0.6560815235020523 10.775446251042075
5.2977264660629455 -0.6560815235020523 10.775446251042075
5.332043839928646 -3.922094585620418 10.821291712305877
5.241611279267036 -4.322602990851726 10.629141927849696
5.224175401152013 1.773075334125114 10.590812978577393
5.208810229676644 -8.18473758533299 10.549512467715262
5.297116801934465 -1.4237054164173106 10.723171182168485
5.418957087687574 5.8830278463123316 10.966409352362888
5.281813678148702 -1.2090577164657836 10.675180743142514
5.27939311109586 -5.792523162255081 10.66835662225336
5.287375878907965 -5.418974750165103 10.68227508618365
5.301661222109885 -2.5001621077448166 10.701680564036796
5.3061994302029145 -1.0628468042264738 10.696011629982522
5.263139005892498 -5.534230962170758 10.608218062950371
5.0954618417094295 -9.213126921381196 10.257989712194478
5.549808858397857 6.8772256763133495 11.16636345894788
8.132546065516838 15.639899684687267 16.35661999351226
5.376390016499653 5.3775411511601705 10.813034015560353
5.373818965609963 4.8900030890375294 10.806001981790642
5.373818965609963 4.8900030890375294 10.806001981790642
5.27173849154993 -1.3436233560127886 10.598346715737915
5.425377676623264 5.50709782921578 10.898341868281934
5.3193903397937445 -5.095808798654155 10.680202149124812
5.316191433610423 -3.379243898862114 10.66882230227775
5.3266003326053095 -0.9850166175543746 10.680418388091985
7.708178511308552 14.416433491025659 15.454013798577053
5.258476761826648 -8.664339922348383 10.539482417217132
5.336381748756888 -0.6790810806085101 10.688498452510022
5.452928643022695 5.700269769976595 10.917420838802373
5.291283213221794 -4.477778425403817 10.591051646419679
5.309391165127942 -6.391912985701895 10.619578881244042
5.366766127434548 -1.7210368354907846 10.731374155455997
5.350912404585189 -3.6019355540249283 10.68977742312969
